x,y,z,intensity,index
233.121994,1.6099999999999999,27.2761,0,0.0
233.122101,1.2361,22.9557,0,0.0
233.123901,1.4334,24.8403,3084,0.0
233.12399299999998,1.8652,25.352501,0,0.0
233.12510699999999,1.6659,27.280399,7710,0.0
233.126007,1.5453,27.187400999999998,4369,0.0
233.127502,1.27,24.126199999999997,4883,0.0
233.129807,1.5526,25.379998999999998,3084,0.0
233.130493,1.5169,21.549899999999997,2313,0.0
233.132996,1.8662999999999998,25.3664,3855,0.0
233.133194,1.8346,25.3505,0,0.0
233.135193,1.3837,24.5368,0,0.0
233.138199,1.7846,25.446099999999998,3084,0.0
233.139893,1.4883,24.1294,4626,0.0
233.139999,1.4384,21.552298999999998,2313,0.0
233.139999,1.4606,24.0837,0,0.0
233.1418,0.9896999999999999,21.4436,6425,0.0
233.14250199999998,1.0272,24.380198999999998,3855,0.0
233.143204,1.7921,24.359199999999998,1285,0.0
233.145401,1.0614,21.470501,8481,0.0
233.146896,1.4753999999999998,21.5317,0,0.0
233.148499,1.2845,22.995898999999998,6168,0.0
233.149002,1.416,24.567301,4626,0.0
233.149399,1.1938,21.551201,7196,0.0
233.15559399999998,0.8799,24.718398999999998,0,0.0
233.158401,1.5178,21.5735,0,0.0
233.160004,1.321,21.5226,7967,0.0
233.16039999999998,1.0789,23.886599999999998,0,0.0
233.16070599999998,1.2965,21.516399,2056,0.0
233.161194,1.8238999999999999,26.484399999999997,4112,0.0
233.16160599999998,1.3716,24.067801,0,0.0
233.16340599999998,0.8412999999999999,21.493799,7196,0.0
233.163605,1.405,22.8971,2313,0.0
233.16439799999998,1.0562,24.592599999999997,2827,0.0
233.164597,1.2574999999999998,21.6416,0,0.0
233.166306,1.5408,24.1085,3084,0.0
233.166702,1.4153,22.9862,4883,0.0
233.16709899999998,1.2064,23.9333,0,0.0
233.167206,1.6918,25.357901,0,0.0
233.169296,1.0648,21.4133,3341,0.0
233.169907,1.5334999999999999,24.487399999999997,3855,0.0
233.171799,1.3492,24.043699,4883,0.0
233.172104,1.2772,21.587899999999998,2056,0.0
233.173096,1.3398999999999999,23.0126,3598,0.0
233.173996,1.0003,24.7561,2570,0.0
233.173996,1.4131,21.537701,2313,0.0
233.17460599999998,1.3420999999999998,24.116799999999998,2570,0.0
233.1763,1.2155,23.044901,1542,0.0
233.177597,1.8684999999999998,27.453501,3341,0.0
233.17889399999999,1.4549999999999998,25.3248,6682,0.0
233.179703,1.7776999999999998,25.510400999999998,3341,0.0
233.180206,1.2550999999999999,24.058999999999997,0,0.0
233.180801,1.1743,23.121201,5397,0.0
233.18099999999998,1.1481999999999999,23.930799,8481,0.0
233.18310499999998,1.287,24.051299999999998,3341,0.0
233.183594,1.7691999999999999,25.3374,10023,0.0
233.183807,0.9547,20.705,1799,0.0
233.184601,1.4619,24.152099999999997,3855,0.0
233.18589799999998,0.9842,21.4533,4369,0.0
233.186005,1.3652,22.938699999999997,0,0.0
233.18710299999998,1.4405,24.0485,6682,0.0
233.18899499999998,1.3298999999999999,22.939301,1542,0.0
233.18949899999998,1.4932999999999998,23.009898999999997,3084,0.0
233.18980399999998,1.6635,27.322599,7967,0.0
233.191406,1.0658999999999998,24.6989,4112,0.0
233.191895,1.4817,21.581599999999998,5397,0.0
233.193695,1.4967,21.5424,2313,0.0
233.196396,1.1712,24.878798999999997,1542,0.0
233.19679299999999,1.0773,23.937400999999998,5140,0.0
233.19839499999998,1.5292999999999999,25.334498999999997,3084,0.0
233.19929499999998,1.1589,24.7111,3084,0.0
233.20010399999998,1.2632999999999999,22.9758,1285,0.0
233.20100399999998,1.2032,24.043799999999997,3341,0.0
233.20280499999998,1.1634,23.915599999999998,8224,0.0
233.20320099999998,0.9026,21.5112,1799,0.0
233.20350599999998,1.3359999999999999,22.873699,1542,0.0
233.20370499999999,1.0508,24.664801,4112,0.0
233.20599399999998,1.2694999999999999,22.888599,4883,0.0
233.20950299999998,1.3069,23.0173,3598,0.0
233.212799,1.603,24.363501,4369,0.0
233.213593,1.5214999999999999,22.816999,2827,0.0
233.214005,1.4395,27.6679,6168,0.0
233.2146,0.8814,24.7274,4112,0.0
233.215805,1.7066,25.366899,3084,0.0
233.219696,1.3144,21.601601,6168,0.0
233.22479199999998,1.0688,24.868999,1542,0.0
233.227203,1.329,24.816401,3855,0.0
233.22869899999998,1.1489,23.9818,0,0.0
233.230301,1.8029,27.3659,3855,0.0
233.235199,0.9042,26.6439,4112,0.0
233.235199,1.0923,23.983299,3855,0.0
233.235596,0.9728,21.478901,5397,0.0
233.236099,1.3021,25.319499999999998,5397,0.0
233.240402,1.5378999999999998,25.366699,10280,0.0
233.240906,1.1387,21.552298999999998,2313,0.0
233.240997,1.341,24.7777,2056,0.0
233.24200399999998,1.1201999999999999,21.2384,2570,0.0
233.242706,1.3377999999999999,24.124499999999998,8481,0.0
233.244293,1.3236999999999999,27.009501,4626,0.0
233.245499,1.4173,23.094101,5397,0.0
233.247299,1.5674,23.001199999999997,3084,0.0
233.248901,2.1179,24.7973,3598,0.0
233.2491,1.1318,24.026199,0,0.0
233.24960299999998,1.6963,24.4806,1285,0.0
233.251007,1.3012,24.136101,4626,0.0
233.251602,1.1674,24.239599,3084,0.0
233.25289899999999,1.3169,22.9191,1285,0.0
233.253693,1.7247,25.4046,0,0.0
233.254807,1.1599,21.4541,2827,0.0
233.255707,1.1085,24.065399,0,0.0
233.25590499999998,1.2694999999999999,24.009999999999998,7710,0.0
233.257401,1.3657,27.423,4626,0.0
233.261307,1.1919,24.008699,4369,0.0
233.26350399999998,1.4006999999999998,24.051399,6682,0.0
233.266403,1.2766,23.063800999999998,5397,0.0
233.267899,1.2681,23.196500999999998,3341,0.0
233.27110299999998,0.8616999999999999,23.954,3341,0.0
233.272797,0.8605999999999999,21.499299999999998,1799,0.0
233.27329999999998,1.8723999999999998,26.3465,4112,0.0
233.273605,1.2623,21.4116,1799,0.0
233.27470399999999,0.9057999999999999,20.7078,2313,0.0
233.27479599999998,1.7268999999999999,25.367901,3341,0.0
233.275497,1.4081,24.146798999999998,3084,0.0
233.276199,1.369,22.9793,0,0.0
233.276794,1.5987,24.435699,3084,0.0
233.277695,1.6463999999999999,25.293699,3084,0.0
233.27900699999998,1.4033,24.1012,0,0.0
233.279495,1.1375,24.058000999999997,3855,0.0
233.283096,1.6703999999999999,25.3985,6939,0.0
233.283997,1.4422,27.0506,5911,0.0
233.285904,1.6409,24.416999999999998,3341,0.0
233.287003,1.23,25.172199,3084,0.0
233.287994,1.3717,22.994899999999998,3598,0.0
233.28810099999998,1.0507,24.816499999999998,3084,0.0
233.294098,1.0944,24.002501,0,0.0
233.297394,1.4559,25.4135,3855,0.0
233.298996,1.2548,22.8778,2827,0.0
233.304092,1.4226999999999999,25.365999,4626,0.0
233.304306,1.7899999999999998,25.386101,3598,0.0
233.304993,1.3508,24.1661,0,0.0
233.305695,1.6124999999999998,24.436199,0,0.0
233.31120299999998,1.2408,24.8692,3084,0.0
233.312195,1.1842,24.2833,2313,0.0
233.31260699999999,1.3124,24.212298999999998,3341,0.0
233.31539899999999,1.3481999999999998,22.145398999999998,1542,0.0
233.316193,1.5236999999999998,25.388901,3855,0.0
233.316895,1.5291,24.4786,3084,0.0
233.31880199999998,1.504,25.261599999999998,3855,0.0
233.321396,1.6233,22.9916,3084,0.0
233.32600399999998,1.2851,24.8214,3855,0.0
233.32609599999998,1.3522999999999998,23.086499999999997,2570,0.0
233.326706,1.5463,24.316999,3855,0.0
233.328094,1.4807,25.0739,3855,0.0
233.328094,1.5581,25.354699999999998,3341,0.0
233.328094,1.6137,24.4634,4369,0.0
233.329193,1.1644999999999999,24.025399999999998,0,0.0
233.33000199999998,2.0027,26.359500999999998,1542,0.0
233.332001,1.0708,24.7857,1542,0.0
233.33210799999998,0.976,21.253999999999998,3341,0.0
233.332504,1.3067,22.958099,2827,0.0
233.333405,1.6126,24.387199,0,0.0
233.335007,1.1872,24.120399,3341,0.0
233.336594,1.013,21.125999,1542,0.0
233.337494,0.9228,21.510400999999998,1799,0.0
233.337799,0.8733,22.169901,1799,0.0
233.337799,1.184,24.046699999999998,7196,0.0
233.337997,1.4573,24.5737,3084,0.0
233.338104,0.8704999999999999,23.9457,3855,0.0
233.34210199999998,1.5029,27.107699999999998,8738,0.0
233.34309399999998,0.9426,25.7307,6425,0.0
233.34339899999998,1.2871,23.0744,4883,0.0
233.34460399999998,1.7187999999999999,25.448099,3598,0.0
233.34489399999998,1.2781,26.246401,2827,0.0
233.34609999999998,1.3748,25.296599999999998,3084,0.0
233.34640499999998,1.2245,24.080600999999998,0,0.0
233.34669499999998,1.621,24.407301,0,0.0
233.34730499999998,1.6465999999999998,24.427401,7196,0.0
233.347397,1.0528,24.818399,0,0.0
233.34849499999999,1.5413999999999999,25.142999999999997,3341,0.0
233.348602,1.4031,22.925300999999997,2827,0.0
233.350403,0.9626,20.6175,2313,0.0
233.352097,1.2027999999999999,24.060399999999998,0,0.0
233.35429399999998,1.401,24.1406,8481,0.0
233.35819999999998,1.2468,22.8997,2570,0.0
233.359604,1.3942999999999999,22.018801,3855,0.0
233.36039699999998,1.0223,27.1588,2056,0.0
233.36039699999998,1.698,24.426900999999997,6682,0.0
233.360504,1.4789999999999999,25.435699,1542,0.0
233.362595,1.535,22.004600999999997,4626,0.0
233.3629,1.4401,21.9133,2313,0.0
233.363205,1.0493,23.943099999999998,2570,0.0
233.36340299999998,1.3623999999999998,22.93,3341,0.0
233.36489899999998,1.3195999999999999,24.127001,3084,0.0
233.366592,1.4637,25.069098999999998,0,0.0
233.368393,1.0939999999999999,24.7805,3341,0.0
233.36849999999998,1.0378,20.944499999999998,2827,0.0
233.37150599999998,1.3616,23.0105,2827,0.0
233.373795,1.6776,24.3519,4112,0.0
233.37640399999998,1.0909,22.196899,0,0.0
233.37649499999998,1.7285,25.369801,4626,0.0
233.377594,1.2058,24.837799,8224,0.0
233.377808,1.373,24.179700999999998,0,0.0
233.37789899999999,1.9177,26.220599999999997,4112,0.0
233.379593,1.5789,21.932699,3084,0.0
233.38000499999998,1.2356,24.168899999999997,0,0.0
233.380707,1.5188,24.9594,2827,0.0
233.385406,0.7552,23.8002,3341,0.0
233.38679499999998,1.0206,20.984699,2570,0.0
233.387207,1.6002999999999998,24.422000999999998,3855,0.0
233.388794,1.3183,24.125,2056,0.0
233.389008,1.3307,25.0061,5140,0.0
233.389603,1.4690999999999999,22.053801,3598,0.0
233.389694,1.4545,24.134399,0,0.0
233.390594,1.5765,24.357901,3084,0.0
233.394501,1.1827999999999999,20.915599999999998,2827,0.0
233.395706,1.3813,25.262199,3855,0.0
233.397797,1.1661,25.022499,3084,0.0
233.398102,1.0671,24.0418,4626,0.0
233.399399,1.5946,24.466998999999998,0,0.0
233.399506,1.3836,22.008801,2313,0.0
233.400497,0.8896999999999999,21.0256,1542,0.0
233.401505,1.4911999999999999,22.020901,4626,0.0
233.403,1.5345,22.0861,1028,0.0
233.40370199999998,1.9073,26.353901,3598,0.0
233.4039,1.6146,25.4016,0,0.0
233.40469399999998,1.4224999999999999,24.9851,2313,0.0
233.405701,0.9062,20.897199999999998,2570,0.0
233.40580699999998,1.3360999999999998,27.076400999999997,3598,0.0
233.40589899999998,1.2732999999999999,24.121799,3341,0.0
233.40769999999998,1.9055,26.392799,1799,0.0
233.409698,1.6228,25.389098999999998,3855,0.0
233.409897,1.2298,24.7782,3855,0.0
233.410294,1.7266,24.348499,2056,0.0
233.411407,1.0238,24.020799999999998,0,0.0
233.41169699999998,1.5945,25.215598999999997,3855,0.0
233.41310099999998,1.5981999999999998,24.455799,0,0.0
233.41349799999998,1.3913,24.119498999999998,3084,0.0
233.414703,1.1726999999999999,22.1586,10794,0.0
233.41520699999998,1.3321999999999998,25.0492,0,0.0
233.415405,1.1089,22.191098999999998,2827,0.0
233.41740399999998,1.1392,23.973699999999997,3341,0.0
233.417496,1.4071,22.148899,2313,0.0
233.41799899999998,0.9711,23.987399999999997,3084,0.0
233.419601,1.5519999999999998,25.0765,3084,0.0
233.419693,1.333,24.745199,7453,0.0
233.419693,1.3907,25.306499,2570,0.0
233.419998,1.026,24.743499999999997,3341,0.0
233.421097,1.2503,25.036099999999998,2056,0.0
233.422302,0.7907,23.8692,3084,0.0
233.422302,1.3637,21.9914,1285,0.0
233.422394,1.2965,25.273999999999997,3855,0.0
233.422699,1.2794999999999999,24.1964,4883,0.0
233.42379799999998,1.6002999999999998,25.131598999999998,3084,0.0
233.4263,1.3759,25.1007,5140,0.0
233.42640699999998,2.0033,26.186501,1799,0.0
233.426895,1.2008999999999999,21.002599999999997,1799,0.0
233.427002,1.4435,24.126499,0,0.0
233.428802,0.9633999999999999,22.302999,1542,0.0
233.428802,0.9739,22.177799,2827,0.0
233.429901,1.8936,26.301399,3598,0.0
233.43009899999998,1.3902999999999999,22.090799,0,0.0
233.430801,1.2888,25.056998999999998,2056,0.0
233.431503,1.4885,25.1264,4112,0.0
233.431595,0.9250999999999999,24.616699,1542,0.0
233.431793,1.6552,24.436999999999998,2056,0.0
233.432907,2.0824,26.234500999999998,3598,0.0
233.43350199999998,1.2479,24.1252,0,0.0
233.43400599999998,1.5983999999999998,24.5144,2827,0.0
233.43409699999998,1.2083,24.062599,3084,0.0
233.43559299999998,1.3253,24.523999999999997,2313,0.0
233.43559299999998,1.8260999999999998,26.374201,4112,0.0
233.43620299999998,0.882,22.195999,3084,0.0
233.437195,1.2083,22.1012,0,0.0
233.43800399999998,1.4299,25.2911,0,0.0
233.439606,1.7892,25.3846,3341,0.0
233.43980399999998,1.4501,22.074099999999998,1028,0.0
233.440094,1.3213,22.150199999999998,3341,0.0
233.440201,0.7932,23.790001,6939,0.0
233.44160499999998,0.8434999999999999,20.6448,2827,0.0
233.442703,1.2671,24.110001,0,0.0
233.44340499999998,1.2504,24.128401,0,0.0
233.445694,1.3560999999999999,25.0138,0,0.0
233.44650299999998,1.5577999999999999,25.302401,6425,0.0
233.44659399999998,1.9391999999999998,26.305999999999997,0,0.0
233.447296,1.2971,24.1852,0,0.0
233.44740299999998,1.5138,25.2472,1542,0.0
233.44830299999998,1.3191,24.195,4369,0.0
233.44889799999999,1.0521,22.1721,1285,0.0
233.44929499999998,1.3316,25.152200999999998,3084,0.0
233.450394,0.9336,23.909499999999998,1799,0.0
233.45140099999998,1.6345999999999998,25.316601,3084,0.0
233.451599,1.3961,22.075499999999998,0,0.0
233.45280499999998,1.378,24.154899999999998,0,0.0
233.453903,1.3436,22.174699999999998,2313,0.0
233.453995,1.5498999999999998,25.367001,4626,0.0
233.454193,1.166,24.8538,0,0.0
233.456406,1.075,22.124700999999998,7453,0.0
233.456406,1.3480999999999999,22.919200999999997,6939,0.0
233.45779399999998,1.8116999999999999,26.427699999999998,3341,0.0
233.459702,1.6171,25.5714,3084,0.0
233.45989999999998,1.9893999999999998,26.3069,3341,0.0
233.46040299999999,1.6548999999999998,24.319799,3084,0.0
233.461105,1.8256999999999999,26.348,3598,0.0
233.46169999999998,1.5433,24.368799,4112,0.0
233.462097,0.9728,24.660801,5654,0.0
233.463104,0.8992,22.172501,0,0.0
233.46319599999998,1.2393999999999998,25.292800999999997,3598,0.0
233.46380599999998,1.2521,22.111099,0,0.0
233.464905,1.399,24.371499999999997,3084,0.0
233.468201,1.3924999999999998,25.208499999999997,0,0.0
233.46830699999998,1.4285999999999999,22.1493,1542,0.0
233.469498,0.9873,24.673900999999997,0,0.0
233.470993,2.0080999999999998,26.2976,7453,0.0
233.471298,1.2372999999999998,25.153999,0,0.0
233.47140499999998,1.9972999999999999,26.212999,8224,0.0
233.471497,1.3206,22.0947,0,0.0
233.472702,1.277,25.010400999999998,4112,0.0
233.474594,1.3538999999999999,22.087999,5397,0.0
233.47479199999998,1.3860999999999999,22.1087,0,0.0
233.4758,1.1777,22.168799999999997,0,0.0
233.476105,1.1735,20.969601,1285,0.0
233.476395,1.0801,24.780001,3341,0.0
233.478104,1.2784,24.099701,0,0.0
233.478104,1.3782999999999999,22.1024,1799,0.0
233.47830199999999,1.0292,24.0278,3084,0.0
233.479401,1.3871,24.1619,3598,0.0
233.47959899999998,0.9285,22.287201,2313,0.0
233.48109399999998,0.818,22.209298999999998,3341,0.0
233.48109399999998,1.5027,24.3694,2570,0.0
233.481598,1.1934,22.159401,2313,0.0
233.483398,1.4807,24.414199999999997,3598,0.0
233.483795,1.1427,22.119101,6425,0.0
233.484299,1.7911,25.527901,1285,0.0
233.48530599999998,1.1805999999999999,22.1544,0,0.0
233.485504,1.5885,24.430699999999998,2056,0.0
233.487396,1.1994,22.183901,3341,0.0
233.488205,0.8528,23.807399999999998,9766,0.0
233.48840299999998,1.2419,22.128999999999998,1028,0.0
233.48899799999998,1.0831,22.180699999999998,6682,0.0
233.489105,0.8545999999999999,23.927799,2827,0.0
233.48930399999998,1.5319,24.3916,0,0.0
233.490097,1.2679,25.171599999999998,2056,0.0
233.490601,1.4582,25.308999999999997,0,0.0
233.491592,1.2568,24.116501,3084,0.0
233.49169899999998,1.3336,24.136899999999997,5397,0.0
233.49169899999998,1.7119,25.449399999999997,3341,0.0
233.492401,1.3729,24.337899999999998,2570,0.0
233.492493,1.4647999999999999,25.246799,1285,0.0
233.49259899999998,1.4163,25.2484,4112,0.0
233.49299599999998,1.4122999999999999,25.296301,3341,0.0
233.494202,0.8573999999999999,22.205399999999997,0,0.0
233.494507,1.3477,24.2015,2313,0.0
233.494507,1.3646,25.2568,3341,0.0
233.494995,1.4728999999999999,25.2638,0,0.0
233.49659699999998,1.2906,24.192698999999998,3855,0.0
233.497101,1.3593,24.308799999999998,2827,0.0
233.49740599999998,0.8904,20.6285,1028,0.0
233.49780299999998,1.1052,24.755799999999997,8224,0.0
233.499802,1.396,24.4769,2313,0.0
233.499893,1.9210999999999998,26.389298999999998,2056,0.0
233.50199899999998,0.9802,22.200799999999997,4883,0.0
233.50199899999998,1.5715999999999999,25.188999,2827,0.0
233.50320399999998,0.9370999999999999,22.162900999999998,1285,0.0
233.503403,1.1386,22.151199,0,0.0
233.50450099999998,1.1398,22.0898,1799,0.0
233.505295,1.1724999999999999,22.150399999999998,0,0.0
233.50590499999998,1.9027999999999998,26.383399999999998,0,0.0
233.5065,1.5515999999999999,24.402399,0,0.0
233.506607,1.2893,24.989798999999998,0,0.0
233.507294,0.9329999999999999,22.2239,2827,0.0
233.507599,1.0495999999999999,24.730801,4883,0.0
233.50779699999998,1.9370999999999998,26.3557,7453,0.0
233.508408,1.0154999999999998,24.716101,0,0.0
233.508499,0.8404999999999999,20.680999999999997,1799,0.0
233.509201,1.3964999999999999,24.382099,0,0.0
233.509796,1.472,25.302298999999998,3084,0.0
233.510696,1.7232999999999998,25.5418,3598,0.0
233.511093,0.8545999999999999,20.9729,2570,0.0
233.51139799999999,0.7950999999999999,22.003999999999998,5911,0.0
233.51179499999998,2.0715,26.287499999999998,3341,0.0
233.513702,1.0683,24.123699,3084,0.0
233.514099,0.8120999999999999,22.356199,1285,0.0
233.514297,1.1703,20.965,0,0.0
233.51480099999998,1.4034,22.086399,3084,0.0
233.51570099999998,1.6973,25.528098999999997,0,0.0
233.5159,1.4831999999999999,24.3367,0,0.0
233.516098,2.2212,26.357599,1799,0.0
233.51620499999999,1.7525,25.480100999999998,3855,0.0
233.51660199999998,1.0692,23.993600999999998,8224,0.0
233.51759299999998,0.8436,24.6348,3084,0.0
233.51759299999998,2.2256,26.214299999999998,2313,0.0
233.51870699999998,1.5703,24.3265,0,0.0
233.519104,1.2056,24.856399999999997,2056,0.0
233.51960799999998,1.1553,23.999399,3855,0.0
233.52059899999998,1.1626999999999998,22.165198999999998,0,0.0
233.521606,1.1109,24.8489,3855,0.0
233.522202,1.8979,26.348,0,0.0
233.522598,0.9758,23.863198999999998,3341,0.0
233.522797,1.3581999999999999,24.2787,0,0.0
233.523102,1.0363,25.0585,3855,0.0
233.524002,1.329,24.204598999999998,3341,0.0
233.524307,1.2705,22.3097,1285,0.0
233.524597,0.9558,24.8291,3855,0.0
233.526505,0.9143,25.194799,2827,0.0
233.52659599999998,1.1057,24.819699999999997,0,0.0
233.526703,0.9611,25.2644,3855,0.0
233.528,1.175,24.894699,6425,0.0
233.53050199999998,0.9392999999999999,23.8645,10794,0.0
233.53089899999998,1.147,25.021099,3341,0.0
233.531097,1.3835,24.3419,4112,0.0
233.531601,1.4576,25.338699,0,0.0
233.53269999999998,0.9744999999999999,23.882299,3084,0.0
233.533096,2.0833,26.3372,4369,0.0
233.53329499999998,2.0039,26.277901,4626,0.0
233.53390499999998,0.9328,23.8979,3855,0.0
233.53390499999998,1.1359,24.8235,0,0.0
233.53390499999998,1.2504,24.993999,5397,0.0
233.53449999999998,1.0591,24.753401,0,0.0
233.53689599999998,0.8019999999999999,22.217299999999998,3084,0.0
233.537796,1.9748999999999999,26.2701,0,0.0
233.541306,0.9379,23.886999,0,0.0
233.543106,0.8376,20.9317,6168,0.0
233.544098,1.083,24.756999999999998,17990,0.0
233.54600499999998,1.3335,24.3009,3084,0.0
233.546402,1.561,24.3321,2827,0.0
233.54870599999998,1.5077,22.023398999999998,3084,0.0
233.54930099999999,1.623,22.0751,1285,0.0
233.54960599999998,0.9648,22.157498999999998,8738,0.0
233.55000299999998,0.9358,25.290198999999998,2313,0.0
233.550797,1.9062,26.327499,3598,0.0
233.55140699999998,1.1756,22.194799,4369,0.0
233.554092,1.2142,25.1618,1799,0.0
233.554306,1.5495999999999999,27.6175,2056,0.0
233.554596,1.7822,25.441,3855,0.0
233.554794,1.4771999999999998,25.301399,1799,0.0
233.55509899999998,1.105,20.992901,2056,0.0
233.556595,1.2989,25.352899999999998,3084,0.0
233.557404,1.1223999999999998,24.7547,16705,0.0
233.557907,1.9690999999999999,26.233601,4112,0.0
233.558594,1.1948999999999999,24.9867,3598,0.0
233.559799,0.9302999999999999,24.6234,3084,0.0
233.56059299999998,1.1217,24.0707,3341,0.0
233.56149299999998,1.3442999999999998,25.234199999999998,4112,0.0
233.56149299999998,2.1078,26.243401,3598,0.0
233.56179799999998,1.5264,25.320299,0,0.0
233.562805,1.2378,24.0872,1028,0.0
233.562897,1.5269,25.028799,2313,0.0
233.563705,1.5164,22.110398999999997,3084,0.0
233.567307,0.9959,23.9687,2827,0.0
233.567398,1.2459,22.093999999999998,0,0.0
233.57119799999998,1.5691,25.3613,3084,0.0
233.57209799999998,1.0541,22.156098999999998,2570,0.0
233.5728,1.4271,24.426399,4112,0.0
233.57330299999998,1.2551999999999999,22.101399999999998,3341,0.0
233.57479899999998,0.7667999999999999,23.719101,1542,0.0
233.57479899999998,0.9896999999999999,24.7169,6425,0.0
233.575607,1.4334,25.189799999999998,7967,0.0
233.57600399999998,1.0506,20.988899,3598,0.0
233.576508,0.9742,22.211900999999997,1542,0.0
233.576599,1.148,24.815201,0,0.0
233.576706,1.4609999999999999,25.230300999999997,2827,0.0
233.576706,2.2298,26.181801,2570,0.0
233.57690399999998,1.1461999999999999,20.961299999999998,2827,0.0
233.577698,2.0557,26.205099,7196,0.0
233.578003,1.3308,22.0221,0,0.0
233.5802,1.1971,25.087999,3341,0.0
233.580505,1.2649,22.082000999999998,2313,0.0
233.581406,1.1438,24.8064,2056,0.0
233.582001,1.0662,24.7381,9509,0.0
233.582306,0.753,24.739200999999998,2827,0.0
233.583405,0.728,24.848101,3598,0.0
233.58369399999998,1.0473,24.846000999999998,3084,0.0
233.584198,1.1201999999999999,24.849999999999998,3598,0.0
233.584305,1.9373,26.485999999999997,3598,0.0
233.585007,1.0108,25.008101,3598,0.0
233.586105,1.9835999999999998,26.267899999999997,0,0.0
233.58639499999998,1.5631,25.450398999999997,2570,0.0
233.587006,1.3366,22.004199999999997,2827,0.0
233.58729599999998,1.0517999999999998,21.0263,2570,0.0
233.591095,2.1849,26.370701,2570,0.0
233.59330699999998,1.0062,20.955600999999998,3598,0.0
233.59330699999998,2.2149,26.252299999999998,2313,0.0
233.594498,0.9087,25.1194,3855,0.0
233.59480299999998,1.2262,25.062400999999998,0,0.0
233.59519999999998,1.2436,25.1129,3084,0.0
233.59579499999998,1.3163,24.830999,5911,0.0
233.595901,1.2326,22.153499999999998,2056,0.0
233.59669499999998,1.1133,20.952999,0,0.0
233.596893,0.9469,25.185599999999997,0,0.0
233.59699999999998,1.5124,25.124201,0,0.0
233.597107,0.9753999999999999,22.1919,4112,0.0
233.597198,1.4274,24.2225,2056,0.0
233.598694,1.1457,24.003401,3341,0.0
233.598694,1.1873,24.799699999999998,11565,0.0
233.599503,0.7848999999999999,23.873500999999997,1542,0.0
233.60279799999998,1.609,27.695601,4112,0.0
233.605606,0.8071999999999999,25.222400999999998,3855,0.0
233.605698,1.2477,25.130899,0,0.0
233.606796,1.3556,24.968201,0,0.0
233.60699499999998,1.246,25.162599999999998,0,0.0
233.61000099999998,1.1929999999999998,20.9443,0,0.0
233.61099199999998,1.2143,24.865299,5911,0.0
233.611099,1.3563999999999998,24.8827,12850,0.0
233.61120599999998,0.9266,25.211499999999997,5911,0.0
233.61219799999998,1.2339,25.192899999999998,0,0.0
233.612701,1.1187,24.877701,3084,0.0
233.6129,1.0738999999999999,20.9604,2827,0.0
233.613495,1.1955,20.9573,2313,0.0
233.61390699999998,1.2324,24.8234,0,0.0
233.61430399999998,1.2345,24.9561,0,0.0
233.61430399999998,1.5291,25.3081,0,0.0
233.61480699999998,1.3237999999999999,24.929700999999998,6168,0.0
233.61520399999998,1.3981999999999999,25.383599999999998,3598,0.0
233.615402,1.3797,24.2959,3855,0.0
233.61790499999998,1.5262,25.338699,0,0.0
233.61939999999998,1.2742,25.156098999999998,4883,0.0
233.619995,1.6824999999999999,25.4641,3598,0.0
233.623505,1.0202,21.0035,3598,0.0
233.62460299999998,1.1459,21.043599999999998,0,0.0
233.624802,1.4173,27.5245,3855,0.0
233.626297,1.0731,24.820999,2056,0.0
233.62699899999998,1.3658,25.1541,5654,0.0
233.627701,1.3802999999999999,24.3344,3341,0.0
233.628098,1.1178,20.955299,2313,0.0
233.629898,1.0815,25.093901,6939,0.0
233.63009599999998,2.0113,26.226101,0,0.0
233.631607,0.7208,25.239901,3855,0.0
233.632095,1.1965999999999999,24.109301,3341,0.0
233.633896,1.1513,25.1562,3084,0.0
233.634201,1.5446,27.693500999999998,5911,0.0
233.634995,1.8339999999999999,26.4846,4883,0.0
233.635696,1.188,24.944900999999998,3341,0.0
233.635696,1.2542,25.185800999999998,0,0.0
233.638397,1.1588,24.910601,2313,0.0
233.63850399999998,1.4457,21.975201,3084,0.0
233.63850399999998,2.0080999999999998,26.206899999999997,1542,0.0
233.640106,1.3085,24.8892,0,0.0
233.640106,1.4685,24.361400999999997,3341,0.0
233.640594,1.504,25.304299999999998,3084,0.0
233.6418,2.2994,26.343201,3341,0.0
233.642105,1.1166,21.033898999999998,3084,0.0
233.644196,1.1643999999999999,25.232401,0,0.0
233.64610299999998,1.1032,25.2073,3341,0.0
233.64610299999998,1.1126,20.975599,0,0.0
233.646393,1.1722,25.1462,2827,0.0
233.64700299999998,1.1011,20.931499,0,0.0
233.647202,2.227,26.2094,4369,0.0
233.649399,1.2038,25.23,6939,0.0
233.64979599999998,1.1838,24.153601,0,0.0
233.65190099999998,1.0339,20.920299999999997,0,0.0
233.65310699999998,1.3255,25.1127,6168,0.0
233.653595,1.1821,20.956899999999997,0,0.0
233.65370199999998,1.1034,20.956899999999997,0,0.0
233.65559399999998,1.0715,25.253999999999998,3084,0.0
233.655701,1.0733,20.966499,0,0.0
233.65649399999998,1.0905,24.0776,3341,0.0
233.656601,2.227,26.157301,0,0.0
233.656693,1.5738999999999999,25.399798999999998,4112,0.0
233.65730299999998,1.0073999999999999,25.1751,2313,0.0
233.658401,1.2206,20.9403,0,0.0
233.658798,1.2872,24.923,5911,0.0
233.659393,1.2872999999999999,25.211499999999997,10280,0.0
233.660202,0.8702,21.9513,12850,0.0
233.66130099999998,1.1406,21.043799999999997,0,0.0
233.661499,1.1944,25.209899999999998,0,0.0
233.662003,1.4788999999999999,25.2864,0,0.0
233.662399,1.2856999999999998,25.2686,0,0.0
233.663605,0.8527,21.9303,8481,0.0
233.66439799999998,1.4344999999999999,25.254801,3598,0.0
233.665695,1.5756999999999999,25.308000999999997,3598,0.0
233.666,1.1594,20.935800999999998,0,0.0
233.666397,1.4801,22.1192,1285,0.0
233.667801,1.4296,24.855499,8995,0.0
233.668701,1.4629999999999999,25.1728,4112,0.0
233.669296,1.5503,24.343598999999998,3341,0.0
233.669601,1.3776,25.2654,3084,0.0
233.669693,2.3648,26.430598999999997,3598,0.0
233.671097,1.2677,25.130399999999998,2056,0.0
233.671295,1.2724,24.1588,3341,0.0
233.67349199999998,1.2397,20.962699999999998,0,0.0
233.678802,1.3437999999999999,25.256901,0,0.0
233.678802,2.3236,26.321699,2313,0.0
233.681107,2.3224,26.222400999999998,4369,0.0
233.682007,1.0799999999999998,21.0114,0,0.0
233.684601,1.4618,25.351999,0,0.0
233.684601,1.4771999999999998,27.579901,0,0.0
233.68490599999998,1.2935999999999999,20.947201,0,0.0
233.685196,1.0591,21.031799,9766,0.0
233.68589799999998,1.4364,25.315399,0,0.0
233.686401,2.3278,26.268998999999997,11822,0.0
233.68649299999998,1.3283,25.0506,0,0.0
233.6866,2.2294,26.328999999999997,2313,0.0
233.68769799999998,1.3598,25.097799,8481,0.0
233.68769799999998,1.9501,26.360901,5654,0.0
233.68800399999998,1.1605999999999999,25.133399999999998,3341,0.0
233.688705,1.6744999999999999,26.380899,4369,0.0
233.691193,1.5862999999999998,27.726298999999997,4369,0.0
233.69439699999998,0.7328,24.217501,2827,0.0
233.696396,1.7725,26.4471,3598,0.0
233.698105,1.44,25.3538,3084,0.0
233.699493,1.8216999999999999,26.258301,4369,0.0
233.69979899999998,0.9056,25.302298999999998,3084,0.0
233.700607,1.403,25.247498999999998,4883,0.0
233.700897,1.4531999999999998,27.538,4883,0.0
233.702499,1.3931,25.151799999999998,3341,0.0
233.703903,2.3992999999999998,26.630301,3084,0.0
233.70410199999998,2.6113999999999997,23.9515,0,0.0
233.70469699999998,1.2516,25.2288,7196,0.0
233.707397,1.1625999999999999,25.261999,3598,0.0
233.707901,0.7983,21.9312,9252,0.0
233.70829799999998,1.1892,20.929899,4112,0.0
233.70829799999998,1.6349,26.5828,1799,0.0
233.709106,1.0156,25.1012,2827,0.0
233.71040299999999,2.0281,26.310399999999998,3598,0.0
233.71040299999999,2.1986,26.417299,3341,0.0
233.71079999999998,1.2231999999999998,21.0047,1799,0.0
233.711899,0.843,27.2106,1799,0.0
233.712006,1.7928,26.5326,2827,0.0
233.71409599999998,1.4559,24.9671,12336,0.0
233.715698,2.0434,26.218799999999998,4112,0.0
233.716995,1.2868,20.976801,2056,0.0
233.716995,1.7058,26.519099999999998,4112,0.0
233.7173,1.5418999999999998,22.0432,1285,0.0
233.718201,0.8258,23.8615,2827,0.0
233.71839899999998,1.3215999999999999,20.974000999999998,2827,0.0
233.718506,0.9584999999999999,25.107599,2827,0.0
233.719101,1.0574999999999999,25.136999,2056,0.0
233.719101,1.3336,25.187099,9252,0.0
233.71929899999998,1.4894999999999998,27.612499,5911,0.0
233.720596,2.1078,26.593999999999998,3598,0.0
233.72169499999998,1.6587999999999998,27.8612,3855,0.0
233.721802,2.5808999999999997,23.9622,4626,0.0
233.722397,1.1200999999999999,25.0748,9766,0.0
233.72289999999998,1.4152,27.408001,3855,0.0
233.72500599999998,1.3063,20.9578,0,0.0
233.725098,1.4352,25.3237,2827,0.0
233.72569299999998,2.2197,26.256999999999998,3341,0.0
233.72860699999998,1.514,25.3673,6682,0.0
233.73049899999998,1.6677,26.4604,3341,0.0
233.73139999999998,1.3356,27.3382,3855,0.0
233.732498,2.2178,26.1742,3084,0.0
233.733002,1.7382,26.708599,4626,0.0
233.73319999999998,2.0526,26.510299999999997,3598,0.0
233.736099,0.8908999999999999,23.903601,1542,0.0
233.73689299999998,1.3520999999999999,25.247298999999998,3341,0.0
233.73710599999998,2.3718,26.430401,4112,0.0
233.7379,1.8094999999999999,25.511298999999998,1542,0.0
233.73800699999998,0.7288,25.764899999999997,3855,0.0
233.7388,1.51,25.363198999999998,0,0.0
233.7397,1.2489999999999999,25.227899999999998,0,0.0
233.74209599999998,1.5508,25.2719,3598,0.0
233.742203,1.7276,26.450398999999997,4369,0.0
233.742401,1.7171999999999998,26.652901,3341,0.0
233.743301,1.3884999999999998,20.9244,8738,0.0
233.743698,1.7498,26.590401,9252,0.0
233.74380499999998,2.5443,24.012501,3084,0.0
233.745102,1.5688,25.309400999999998,0,0.0
233.746094,1.0889,25.167399999999997,3341,0.0
233.747299,1.8653,26.807399999999998,1799,0.0
233.74749799999998,1.8622999999999998,26.379600999999997,7196,0.0
233.747696,1.4743,25.2852,0,0.0
233.74929799999998,1.4066999999999998,20.972099,5397,0.0
233.750702,1.2177,25.200001,1542,0.0
233.751007,1.3648,25.288601,3084,0.0
233.75230399999998,2.6027,24.0403,2827,0.0
233.75239599999998,0.7948,21.901699,3855,0.0
233.753098,2.2704999999999997,26.4571,3341,0.0
233.753693,1.791,26.635599,2827,0.0
233.75410499999998,1.142,25.263901,1028,0.0
233.75590499999998,1.3287,20.9639,0,0.0
233.75599699999998,0.848,25.1409,3084,0.0
233.756699,2.2718,26.238899,0,0.0
233.758499,1.3742999999999999,20.964499999999997,0,0.0
233.75990299999998,1.9916999999999998,26.827999,2570,0.0
233.761002,2.0263,26.921101,0,0.0
233.76170299999998,2.6168,23.960898999999998,2570,0.0
233.76179499999998,2.2847,26.2925,2827,0.0
233.76269499999998,0.8071999999999999,21.978201,8481,0.0
233.76269499999998,1.4931999999999999,25.3111,4112,0.0
233.764297,2.627,23.968598999999998,0,0.0
233.76570099999998,1.5004,27.587,4883,0.0
233.7659,1.7159,26.5872,3598,0.0
233.769196,1.3288,20.9666,1028,0.0
233.770004,1.5977,25.297199,0,0.0
233.771698,1.4938,20.943399,3084,0.0
233.771896,1.8932,26.287001,2827,0.0
233.772598,1.6689999999999998,25.283898999999998,4112,0.0
233.772598,2.3406,26.386298999999998,3084,0.0
233.772598,2.4299,26.312400999999998,3598,0.0
233.772797,1.5446,27.794200999999997,3341,0.0
233.77540599999998,0.8811,21.897199999999998,4369,0.0
233.776703,2.0159,26.9391,3341,0.0
233.77879299999998,2.0009,26.354,3598,0.0
233.7789,2.0622,26.315901,4112,0.0
233.779205,2.1451,26.704598999999998,2313,0.0
233.77999899999998,2.2459,26.4986,2827,0.0
233.78080699999998,1.6002999999999998,27.735398999999997,0,0.0
233.78329499999998,0.8704999999999999,24.9058,3855,0.0
233.785904,1.8005,26.7118,3341,0.0
233.78729199999998,1.7391999999999999,25.319201,2570,0.0
233.7883,1.9128999999999998,27.0625,3341,0.0
233.788605,1.6824,25.454200999999998,2313,0.0
233.78990199999998,1.2006999999999999,28.317100999999997,7196,0.0
233.78999299999998,1.9831999999999999,26.339499999999997,0,0.0
233.790405,2.032,26.3689,0,0.0
233.790497,1.519,25.3703,3855,0.0
233.79089399999998,1.9408999999999998,26.785801,3598,0.0
233.791397,2.0477,26.4806,3598,0.0
233.79269399999998,1.595,27.758301,3855,0.0
233.79479999999998,0.946,21.997498999999998,3341,0.0
233.794998,1.5446,25.3099,8481,0.0
233.795898,1.6352,25.546801,3084,0.0
233.797302,2.3087,26.344101,4112,0.0
233.797607,1.7663,25.488599999999998,2570,0.0
233.798096,1.0551,22.040701,1799,0.0
233.798599,2.686,24.645799999999998,3341,0.0
233.79930099999999,1.0453,21.971799999999998,2827,0.0
233.80029299999998,1.873,26.5019,2827,0.0
233.80029299999998,2.3455,26.469199999999997,3341,0.0
233.80149799999998,1.6764,25.3239,0,0.0
233.802505,1.7564,26.384898999999997,4369,0.0
233.803207,1.6461,25.377701,1799,0.0
233.803497,0.9171999999999999,27.162599999999998,4626,0.0
233.804092,1.815,25.525499,3855,0.0
233.805801,1.4551999999999998,27.7868,3341,0.0
233.806198,0.9737,25.106199,2827,0.0
233.80630499999998,2.258,26.361798999999998,3084,0.0
233.808807,2.1515999999999997,26.537001,3084,0.0
233.808899,1.7470999999999999,25.4291,0,0.0
233.809296,0.7523,24.212298999999998,2827,0.0
233.810699,0.8985,25.014,2056,0.0
233.8116,2.7018,24.433799999999998,2827,0.0
233.813202,2.1138,26.500999,0,0.0
233.8134,1.6839,25.3248,0,0.0
233.815598,1.5973,25.455999,1542,0.0
233.817093,1.9503,26.4382,1799,0.0
233.817398,0.8033,24.937099,2827,0.0
233.81970199999998,1.5401,27.694499999999998,4883,0.0
233.819901,1.5352,25.363501,0,0.0
233.822006,1.6709999999999998,21.888599,2827,0.0
233.82459999999998,2.1115999999999997,26.953999999999997,0,0.0
233.82690399999998,1.92,27.366301,3855,0.0
233.827606,1.4969999999999999,25.4,3855,0.0
233.83059699999998,0.8861,24.943199,8224,0.0
233.830795,0.8527,27.287398999999997,5140,0.0
233.83120699999998,2.4604999999999997,26.728700999999997,3598,0.0
233.83970599999998,1.8426,26.926900999999997,3341,0.0
233.840103,2.3937,26.412398999999997,3598,0.0
233.841095,2.054,26.958299999999998,4369,0.0
233.84489399999998,1.378,27.724501,3341,0.0
233.845993,1.0069,25.156098999999998,0,0.0
233.845993,2.4551,24.0884,1799,0.0
233.846802,2.0419,26.2637,3598,0.0
233.84730499999998,0.9784999999999999,25.070100999999998,3084,0.0
233.847397,1.0156,25.1562,7196,0.0
233.849503,2.2797,26.427899999999998,3598,0.0
233.85249299999998,0.9709,21.9851,1028,0.0
233.8526,1.7552999999999999,25.482699999999998,4112,0.0
233.85339399999998,1.9629999999999999,26.469600999999997,1542,0.0
233.85360699999998,1.7230999999999999,25.482901,3084,0.0
233.85459899999998,2.284,26.336599,3084,0.0
233.855698,2.7517,24.316499999999998,5911,0.0
233.856201,1.1431,28.085500999999997,3598,0.0
233.856796,1.5766,25.3584,3341,0.0
233.85699499999998,1.0685,22.0478,4369,0.0
233.859299,0.9765999999999999,24.980300999999997,12079,0.0
233.860504,1.4709999999999999,25.313298999999997,3341,0.0
233.86250299999998,0.97,25.181801,8481,0.0
233.865707,0.8683,25.119498999999998,3084,0.0
233.86610399999998,1.6080999999999999,27.799801,4369,0.0
233.868195,2.7013,24.3267,3084,0.0
233.871994,0.9225,25.045299999999997,1542,0.0
233.87240599999998,0.9080999999999999,27.373898999999998,5140,0.0
233.873001,0.7622,24.159299999999998,3598,0.0
233.87460299999998,1.0005,23.672701,1542,0.0
233.87519799999998,2.7315,24.571099999999998,3341,0.0
233.87550399999998,2.3847,26.633599999999998,3598,0.0
233.87739599999998,1.0325,25.107201,3084,0.0
233.87739599999998,2.7741,24.5522,0,0.0
233.878693,1.9153,26.8326,3598,0.0
233.88130199999998,2.4642999999999997,24.1987,1285,0.0
233.882294,1.1239,25.217198999999997,7196,0.0
233.882401,1.3732,24.2258,1028,0.0
233.88490299999998,1.1054,25.514,1028,0.0
233.8853,2.2944,26.308799999999998,0,0.0
233.88760399999998,2.7332,24.494801,1542,0.0
233.889008,0.9407,27.350400999999998,3855,0.0
233.88980099999998,2.3681,24.194499999999998,3084,0.0
233.890793,2.6612999999999998,24.2195,3598,0.0
233.891495,0.9618,22.076099,1542,0.0
233.892899,1.2283,25.314301,2056,0.0
233.893005,0.9883,25.108299,0,0.0
233.893906,0.7782,25.781799,3341,0.0
233.894104,1.5023,25.272399999999998,3341,0.0
233.894104,2.4101,24.1922,3341,0.0
233.894806,1.7489999999999999,25.579200999999998,1799,0.0
233.895493,2.5577,24.2948,3084,0.0
233.896606,1.9329999999999998,26.680401,1542,0.0
233.89700299999998,2.1931,26.4,3598,0.0
233.89709499999998,1.6016,25.360999999999997,3341,0.0
233.898499,1.0058,25.094101,1542,0.0
233.899094,1.1271,21.9839,3341,0.0
233.901703,2.3150999999999997,26.7644,3598,0.0
233.904099,1.4291,25.276698999999997,2827,0.0
233.90550199999998,0.7592,24.1415,10023,0.0
233.90739399999998,2.7266999999999997,24.7365,1542,0.0
233.911804,0.9606,25.0219,11565,0.0
233.912704,0.8691,24.9877,0,0.0
233.913605,0.8856999999999999,25.080499999999997,4626,0.0
233.919693,2.2407,24.399400999999997,3084,0.0
233.920502,0.7697999999999999,25.059600999999997,5140,0.0
233.921295,1.8492,27.0242,4369,0.0
233.924805,2.2706,26.4561,3598,0.0
233.925995,1.1973,24.200701,1542,0.0
233.926102,1.522,25.802099,4112,0.0
233.928497,1.5655,25.743199999999998,3341,0.0
233.929398,1.7518,25.427401,1542,0.0
233.929901,2.1881,26.104098999999998,4112,0.0
233.929993,0.9284,24.994101,18504,0.0
233.931198,2.697,24.6049,3084,0.0
233.931595,1.3085,24.191298999999997,3084,0.0
233.93490599999998,2.3262,26.4286,3341,0.0
233.936005,0.9417,27.146998999999997,3598,0.0
233.936905,2.2247,26.600201,3598,0.0
233.93800399999998,1.056,25.115499,3341,0.0
233.9384,0.8257,23.660299,2827,0.0
233.941406,2.7773,24.666598999999998,2056,0.0
233.94200099999998,1.5937,24.4394,2827,0.0
233.94219999999999,1.5082,24.4184,1799,0.0
233.946701,2.3625,24.4851,1285,0.0
233.94740299999998,1.2278,24.190599,0,0.0
233.9478,1.8673,27.104,3598,0.0
233.94959999999998,1.6317,25.7208,4369,0.0
233.95199599999998,1.4645,24.374001,3084,0.0
233.952606,0.8397,24.290899,2827,0.0
233.95379599999998,0.9791,25.2577,2827,0.0
233.959305,1.1211,24.2719,3084,0.0
233.960007,1.6585999999999999,24.6679,3084,0.0
233.96040299999999,2.5654999999999997,24.341101,3084,0.0
233.966995,2.3148999999999997,24.319599,0,0.0
233.96710199999998,1.1891,21.997101,0,0.0
233.969498,1.0406,22.059998999999998,5397,0.0
233.96960399999998,2.1071999999999997,26.148000999999997,4112,0.0
233.970001,1.3894,27.6359,3855,0.0
233.971893,1.2036,24.1721,0,0.0
233.973297,2.4808,24.529799999999998,3084,0.0
233.9758,1.5511,24.351699999999997,3341,0.0
233.97659299999998,2.2836,24.3505,3084,0.0
233.97779799999998,0.8046,27.4312,3598,0.0
233.97929399999998,1.2428,24.164301,1028,0.0
233.97990399999998,1.6542,25.893499,4369,0.0
233.980392,0.9903,24.2138,1028,0.0
233.980698,1.0101,25.130399999999998,3084,0.0
233.985199,1.5625,24.379101,0,0.0
233.98800699999998,1.0582,27.369301,3855,0.0
233.988297,1.5839999999999999,24.393801,3855,0.0
233.988602,0.8901,23.687400999999998,2827,0.0
233.98899799999998,1.4597,25.332399,3855,0.0
233.99020399999998,1.1107,25.7668,3084,0.0
233.990707,1.6687999999999998,24.481299999999997,3341,0.0
233.992203,1.0940999999999999,23.660999,2827,0.0
233.993195,1.2222,27.3752,1799,0.0
233.993698,1.9327999999999999,26.829200999999998,3598,0.0
233.995193,1.263,22.0455,2313,0.0
233.996796,2.4553,24.41,3084,0.0
233.997101,1.3693,24.432501,2056,0.0
233.997696,1.8224,27.006901,3598,0.0
233.997894,1.1733,25.617399,2313,0.0
233.998001,1.1267,24.228901,2827,0.0
233.998795,2.6523,25.7043,0,0.0
234.00019799999998,2.5705,25.958,4112,0.0
234.0009,1.1249,22.0058,6168,0.0
234.001801,0.8442999999999999,23.607799999999997,3598,0.0
234.003494,1.1655,24.2108,5911,0.0
234.00509599999998,1.2442,25.188,2056,0.0
234.007996,0.8808999999999999,27.375899999999998,2570,0.0
234.008499,0.9765999999999999,25.655199,3084,0.0
234.008606,2.0894,26.171899999999997,3084,0.0
234.009506,1.1179,22.034900999999998,5397,0.0
234.014999,1.2255,21.998199,2827,0.0
234.01939399999998,1.8011,24.6492,1542,0.0
234.019806,0.8846999999999999,25.1038,1542,0.0
234.021805,0.9541999999999999,25.1089,3855,0.0
234.02200299999998,1.163,25.178499,1028,0.0
234.023697,2.1489,26.184099,3598,0.0
234.025299,0.7879999999999999,23.2355,2570,0.0
234.02569599999998,1.0698999999999999,25.182399999999998,3084,0.0
234.02780199999998,1.3676,24.213099999999997,10023,0.0
234.028305,2.3685,24.587799,3084,0.0
234.03140299999998,1.1142999999999998,23.649400999999997,0,0.0
234.034103,2.5688,26.177298999999998,2313,0.0
234.034302,1.1823,22.074499,2570,0.0
234.03999299999998,2.5415,26.050300999999997,3341,0.0
234.045303,1.1318,23.823798999999998,1542,0.0
234.04659999999998,0.9755999999999999,22.479799,3084,0.0
234.046707,1.1036,27.4547,1799,0.0
234.048294,2.6597999999999997,25.995001,2570,0.0
234.04879799999998,1.6412,24.503901,3855,0.0
234.048996,0.7969999999999999,23.613899,2827,0.0
234.0513,1.8015999999999999,24.702800999999997,1542,0.0
234.0513,2.6618999999999997,26.1751,10794,0.0
234.051697,0.7481,27.6682,3855,0.0
234.05299399999998,2.1698,26.183398999999998,4112,0.0
234.054001,1.7227,24.660601,1542,0.0
234.054306,2.67,24.319201,3598,0.0
234.055206,0.8468,24.073999,1542,0.0
234.05639599999998,2.7043,27.174899999999997,3084,0.0
234.057098,2.6923,25.6999,4369,0.0
234.059601,1.5972,24.535899999999998,3084,0.0
234.060394,2.1936,26.114901,2313,0.0
234.06260699999999,2.4632,26.107599,1799,0.0
234.063202,0.7563,23.811799999999998,3598,0.0
234.063705,1.4956,24.320999,2827,0.0
234.06489599999998,1.4725,25.298,6168,0.0
234.065094,0.7898999999999999,23.260299999999997,1285,0.0
234.065201,2.0831,26.2773,3341,0.0
234.066895,2.6062,26.046301,1799,0.0
234.070999,1.1308,25.247,3084,0.0
234.07179299999999,0.9622999999999999,25.0807,11308,0.0
234.072006,1.0121,24.336599,1028,0.0
234.0728,2.1113999999999997,26.093999999999998,3341,0.0
234.0737,1.0373999999999999,25.074301,7967,0.0
234.076508,1.5405,24.5151,3855,0.0
234.077393,2.08,26.1768,3598,0.0
234.07879599999998,1.2383,24.2337,1799,0.0
234.08000199999998,1.9845,26.210698999999998,1542,0.0
234.08009299999998,1.134,25.369698999999997,1028,0.0
234.08120699999998,2.3281,24.514499999999998,6939,0.0
234.08180199999998,0.7515,25.8801,6939,0.0
234.082001,1.3985999999999998,27.52,4626,0.0
234.082397,0.8223999999999999,24.889098999999998,2827,0.0
234.082993,1.3207,27.458401,3598,0.0
234.084,1.6655,25.919200999999997,3341,0.0
234.08540299999999,1.035,25.002599999999997,17733,0.0
234.088593,2.7239,25.855801,4883,0.0
234.09089699999998,2.0991999999999997,26.153299,0,0.0
234.0914,1.1942,25.6896,3084,0.0
234.091705,2.3912,24.4517,4112,0.0
234.095596,1.1743999999999999,25.4032,3084,0.0
234.09579499999998,1.3862999999999999,24.3878,3341,0.0
234.09609999999998,1.6465999999999998,24.644899,1542,0.0
234.100098,1.0272999999999999,23.686398999999998,2827,0.0
234.100296,2.231,26.2351,9766,0.0
234.10360699999998,0.944,24.3325,0,0.0
234.106598,0.8391,23.778098999999997,1542,0.0
234.107407,0.8885,25.668599999999998,3855,0.0
234.107697,0.9342999999999999,24.221701,9252,0.0
234.108902,1.7079,24.632199999999997,0,0.0
234.109604,2.4518,24.495199,3084,0.0
234.112,1.7477,24.577800999999997,3855,0.0
234.112305,2.0533,26.106099999999998,0,0.0
234.112396,1.4096,27.520699999999998,0,0.0
234.11369299999998,2.5678,26.093999999999998,3084,0.0
234.115707,1.3328,27.436501,4883,0.0
234.117401,2.2115,26.2106,5397,0.0
234.118195,0.7121,23.749001,2570,0.0
234.118393,2.1755,26.233,2313,0.0
234.120895,1.7785,24.652599,1542,0.0
234.121307,1.1077,24.287799999999997,2827,0.0
234.12159699999998,0.9737,24.188101,3598,0.0
234.12159699999998,1.3058999999999998,25.7701,9252,0.0
234.1241,1.3620999999999999,25.590799,3341,0.0
234.124405,0.8792,23.432699,1285,0.0
234.124496,2.4373,26.741501,3598,0.0
234.125793,2.1552,26.167101,3341,0.0
234.126694,1.6805999999999999,24.651799999999998,0,0.0
234.127701,1.1964,23.7864,1542,0.0
234.12950099999998,0.9035,23.717198999999997,3855,0.0
234.131195,2.4276,24.632199999999997,3598,0.0
234.132904,0.9114,23.3246,3598,0.0
234.133499,1.5344,24.488799999999998,0,0.0
234.13679499999998,1.0527,24.977501,4883,0.0
234.13709999999998,1.7397,24.652200999999998,3598,0.0
234.138107,1.7674999999999998,24.749499999999998,3855,0.0
234.13940399999998,1.2424,25.648999999999997,0,0.0
234.139603,1.1993,24.496900999999998,1542,0.0
234.14129599999998,1.5269,27.3995,4626,0.0
234.142899,1.6885,24.723699999999997,3084,0.0
234.143204,1.0885,23.730499,4369,0.0
234.14340199999998,2.8124,26.982799999999997,3341,0.0
234.14520299999998,0.7293999999999999,25.887698999999998,3341,0.0
234.149506,1.2791,21.999499999999998,3084,0.0
234.151093,0.7863,25.9237,0,0.0
234.151093,2.4617,27.0564,3341,0.0
234.151703,0.9683999999999999,23.785299,4369,0.0
234.153595,1.0324,25.110701,2827,0.0
234.15429699999999,0.9663999999999999,25.069401,4369,0.0
234.15649399999998,2.6357999999999997,24.292600999999998,1285,0.0
234.157196,2.6524,26.8447,5140,0.0
234.15919499999998,1.3051,25.348301,4369,0.0
234.159698,1.2732999999999999,25.645201,3084,0.0
234.160004,1.5085,25.732799999999997,1542,0.0
234.160202,0.976,23.798299999999998,3598,0.0
234.161102,0.9541999999999999,22.588300999999998,1285,0.0
234.161407,1.7802,24.7672,3598,0.0
234.16520699999998,1.6533,25.8986,1799,0.0
234.168503,1.5687,24.6446,1285,0.0
234.169601,0.9349999999999999,27.460698999999998,3598,0.0
234.171295,1.4890999999999999,24.5534,3341,0.0
234.172104,1.0522,23.720501,0,0.0
234.174103,2.3352999999999997,26.324301,1799,0.0
234.17590299999998,2.838,24.2703,3855,0.0
234.177597,0.8041999999999999,25.929899,6939,0.0
234.178802,2.8487999999999998,26.848,3598,0.0
234.180801,1.5715999999999999,24.5112,1542,0.0
234.180893,2.6414,24.321899,3855,0.0
234.181503,1.0635999999999999,23.706301,3598,0.0
234.181793,1.6055,27.459,4626,0.0
234.18440199999998,1.3666,27.555,3598,0.0
234.18499799999998,1.4102,22.0417,2827,0.0
234.18530299999998,0.9183,23.770999999999997,3341,0.0
234.190094,2.1603,26.127001,2827,0.0
234.190598,0.834,24.4121,4112,0.0
234.19290199999998,0.8548,27.386699999999998,1799,0.0
234.195801,0.7716999999999999,25.966101,1542,0.0
234.197693,2.5974,24.5427,3084,0.0
234.19889799999999,2.1614,26.298099999999998,2313,0.0
234.199005,1.3298999999999999,25.565599,4112,0.0
234.201508,1.4295,22.028601,1285,0.0
234.20190399999998,1.1112,27.503901,3598,0.0
234.203598,2.6761,24.332701,3084,0.0
234.20419299999998,1.0351,23.811899,2056,0.0
234.20419299999998,2.8547,24.217299999999998,3341,0.0
234.206406,0.7799999999999999,23.171301,1028,0.0
234.206406,2.6351999999999998,24.331498999999997,0,0.0
234.20649699999998,2.3922,26.746699999999997,7196,0.0
234.207199,1.5214999999999999,24.537201,1285,0.0
234.207397,2.4074999999999998,24.351499999999998,2827,0.0
234.210205,0.7658999999999999,23.810301,4369,0.0
234.21449299999998,1.6934,24.680099,3341,0.0
234.218597,1.3844999999999998,24.432599999999997,8224,0.0
234.219406,0.9874999999999999,23.7304,2056,0.0
234.21980299999998,1.2625,24.482799999999997,3341,0.0
234.22019999999998,1.3269,21.959,3084,0.0
234.22019999999998,2.7782999999999998,24.757998999999998,3341,0.0
234.22560099999998,2.8026999999999997,24.287201,2570,0.0
234.22779799999998,2.6909,24.475099999999998,3084,0.0
234.2285,0.7873,24.9527,13621,0.0
234.229095,1.0131999999999999,24.043501,2827,0.0
234.231506,2.0514,26.2498,1799,0.0
234.23170499999998,2.3445,24.5235,6168,0.0
234.23319999999998,0.9235,23.674101,3598,0.0
234.23409999999998,1.018,27.641399,7710,0.0
234.234299,0.8896999999999999,25.1194,4369,0.0
234.236694,0.9556,23.7349,0,0.0
234.24020399999998,1.1871,25.271099,4369,0.0
234.240402,1.0674,27.467198999999997,4883,0.0
234.240601,0.9505,27.345599999999997,1799,0.0
234.241302,0.9159999999999999,23.8218,4112,0.0
234.24290499999998,0.9173,25.118,0,0.0
234.24299599999998,2.8691,26.933701,3341,0.0
234.243301,0.9682,23.8169,2056,0.0
234.245499,1.2254,24.4286,3598,0.0
234.246704,2.6961999999999997,24.4953,0,0.0
234.24749799999998,0.7199,25.915198999999998,2056,0.0
234.248505,1.4957,24.479401,1799,0.0
234.25,1.5673,24.5609,1799,0.0
234.25059499999998,2.8467,24.320999,1799,0.0
234.250702,0.7127,25.9314,1285,0.0
234.25230399999998,2.3703,24.687400999999998,3084,0.0
234.252701,2.7849,24.4748,2827,0.0
234.252701,2.8594,26.9487,0,0.0
234.253998,0.7259,25.9669,0,0.0
234.255707,0.9476,23.811199,0,0.0
234.25599699999998,0.8311,25.532498999999998,3084,0.0
234.256393,1.0119,23.8354,0,0.0
234.257004,0.8373999999999999,23.6049,4112,0.0
234.257599,1.9105999999999999,26.275999,3598,0.0
234.258301,2.6075999999999997,24.349899,3084,0.0
234.260406,1.9603,26.324301,4626,0.0
234.26089499999998,0.8635999999999999,23.874399,0,0.0
